# .PCD v0.7 - Point Cloud Data file format
VERSION 0.7
FIELDS x y z rgb
SIZE 4 4 4 4
TYPE F F F F
COUNT 1 1 1 1
WIDTH 1030
HEIGHT 1
VIEWPOINT 0 0 0 1 0 0 0
POINTS 1030
DATA ascii
0.5052197 0.83313286 0.48593688 4.51216e-39
0.50975221 0.83313286 0.48593688 4.6025648e-39
0.51428473 0.83313286 0.48593688 4.6944003e-39
0.51553428 0.83420157 0.50293708 4.5107447e-39
0.52334976 0.83313286 0.48593688 4.3274311e-39
0.53110123 0.83206427 0.46893692 4.6951136e-39
0.53241479 0.83313286 0.48593688 5.0635486e-39
0.53694731 0.83313286 0.48593688 5.2486671e-39
0.54147983 0.83313286 0.48593688 5.5248939e-39
0.54910338 0.83206427 0.46893692 6.3525091e-39
0.55360389 0.83206427 0.46893692 7.1836823e-39
0.5581044 0.83206427 0.46893692 8.2907347e-39
0.55960989 0.83313286 0.48593688 9.4838759e-39
0.56414247 0.83313286 0.48593688 8.7488458e-39
0.56867498 0.83313286 0.48593688 8.0134388e-39
0.5732075 0.83313286 0.48593688 7.7372162e-39
0.57774001 0.83313286 0.48593688 7.5528264e-39
0.58227253 0.83313286 0.48593688 7.3684337e-39
0.5840019 0.83420157 0.50293708 7.1826089e-39
0.58856642 0.83420157 0.50293708 7.1808026e-39
0.59039176 0.83527017 0.51993704 7.180811e-39
0.59498823 0.83527017 0.51993704 6.9971457e-39
0.5995847 0.83527017 0.51993704 6.8145481e-39
0.60418123 0.83527017 0.51993704 7.091135e-39
0.60877776 0.83527017 0.51993704 7.4592098e-39
0.61337423 0.83527017 0.51993704 7.8272735e-39
0.61797071 0.83527017 0.51993704 8.2857321e-39
0.62005198 0.83633882 0.536937 7.9176586e-39
0.6246804 0.83633882 0.536937 7.5513914e-39
0.63176018 0.83527017 0.51993704 7.7364946e-39
0.63635665 0.83527017 0.51993704 8.0123598e-39
0.64095318 0.83527017 0.51993704 8.380422e-39
0.65261567 0.83206427 0.46893692 8.8349388e-39
0.65711617 0.83206427 0.46893692 8.0037264e-39
0.6637733 0.8310585 0.45293689 7.1740105e-39
0.66824377 0.8310585 0.45293689 5.701372e-39
0.67271417 0.8310585 0.45293689 4.2295041e-39
0.67718464 0.8310585 0.45293689 3.3089673e-39
0.68165505 0.8310585 0.45293689 2.389169e-39
0.68825686 0.82998985 0.43593693 1.7452598e-39
0.69059587 0.8310585 0.45293689 1.1946153e-39
0.69713378 0.82998985 0.43593693 1.7460179e-39
0.6995368 0.8310585 0.45293689 2.3931683e-39
0.70400721 0.8310585 0.45293689 3.0406579e-39
0.70847762 0.8310585 0.45293689 3.773921e-39
0.71294808 0.8310585 0.45293689 2.9462973e-39
0.71741849 0.8310585 0.45293689 2.1197904e-39
0.7218889 0.8310585 0.45293689 5.334037e-39
0.72635937 0.8310585 0.45293689 8.5666238e-39
0.73082983 0.8310585 0.45293689 1.078903e-38
0.73362529 0.83206427 0.46893692 1.2983711e-38
0.73812586 0.83206427 0.46893692 8.2911187e-39
0.74262637 0.83206427 0.46893692 3.59957e-39
0.25570589 0.85863328 0.809937 2.5753526e-39
0.26666945 0.85720903 0.78793693 5.978298e-39
0.27177018 0.85720903 0.78793693 5.9833413e-39
0.27687091 0.85720903 0.78793693 6.1663172e-39
0.2874099 0.8558495 0.76693702 6.1659403e-39
0.29786992 0.85448992 0.74593687 5.6127567e-39
0.29753232 0.8558495 0.76693702 5.6105959e-39
0.30791336 0.85448992 0.74593687 5.8835828e-39
0.31293499 0.85448992 0.74593687 5.8810759e-39
0.31795675 0.85448992 0.74593687 5.7896047e-39
0.32297844 0.85448992 0.74593687 5.7899761e-39
0.32800019 0.85448992 0.74593687 9.3730094e-39
0.3379001 0.85319519 0.72593689 9.3747904e-39
0.34288418 0.85319519 0.72593689 1.0760202e-38
0.35267127 0.8519004 0.70593691 1.0768125e-38
0.38072968 0.84562069 0.60893703 7.462437e-39
0.38974869 0.84445536 0.5909369 7.4627915e-39
0.39447868 0.84445536 0.5909369 8.7517143e-39
0.40339601 0.84329009 0.57293701 8.7553058e-39
0.41224557 0.84212476 0.55493689 6.0859836e-39
0.41690791 0.84212476 0.55493689 6.0802214e-39
0.4256559 0.84095949 0.536937 4.3303023e-39
0.434111 0.83985889 0.51993704 4.3256654e-39
0.43870747 0.83985889 0.51993704 1.031186e-38
0.44706666 0.83875835 0.50293708 1.03288e-38
0.45536196 0.83765775 0.48593688 8.7680366e-39
0.45989448 0.83765775 0.48593688 8.7682734e-39
0.46442699 0.83765775 0.48593688 3.7871534e-39
0.46895951 0.83765775 0.48593688 3.7656715e-39
0.47349203 0.83765775 0.48593688 6.4422161e-39
0.48159534 0.83655721 0.46893692 6.4555032e-39
0.48609588 0.83655721 0.46893692 9.9499296e-39
0.49059638 0.83655721 0.46893692 9.9549406e-39
0.49162212 0.83765775 0.48593688 8.482693e-39
0.49959746 0.83655721 0.46893692 8.4797895e-39
0.50068712 0.83765775 0.48593688 4.9799625e-39
0.50859857 0.83655721 0.46893692 4.9699026e-39
0.50975221 0.83765775 0.48593688 4.8776929e-39
0.51428473 0.83765775 0.48593688 4.8777126e-39
0.51553428 0.83875835 0.50293708 4.6951374e-39
0.52334976 0.83765775 0.48593688 4.696208e-39
0.53110123 0.83655721 0.46893692 5.0642618e-39
0.53241479 0.83765775 0.48593688 5.0649835e-39
0.53694731 0.83765775 0.48593688 5.7081949e-39
0.54147983 0.83765775 0.48593688 5.7089236e-39
0.54910338 0.83655721 0.46893692 7.4527344e-39
0.55360389 0.83655721 0.46893692 7.4516554e-39
0.5581044 0.83655721 0.46893692 8.5601358e-39
0.55960989 0.83765775 0.48593688 8.5665971e-39
0.56414247 0.83765775 0.48593688 7.7386483e-39
0.56867498 0.83765775 0.48593688 7.7372148e-39
0.5732075 0.83765775 0.48593688 7.461351e-39
0.57774001 0.83765775 0.48593688 7.4613496e-39
0.57943738 0.83875835 0.50293708 7.2766024e-39
0.5840019 0.83875835 0.50293708 7.2755206e-39
0.58579528 0.83985889 0.51993704 7.3666344e-39
0.59039176 0.83985889 0.51993704 7.365917e-39
0.59498823 0.83985889 0.51993704 7.0907706e-39
0.5995847 0.83985889 0.51993704 7.0911307e-39
0.60418123 0.83985889 0.51993704 7.3669974e-39
0.60877776 0.83985889 0.51993704 7.3677331e-39
0.61337423 0.83985889 0.51993704 7.82657e-39
0.61797071 0.83985889 0.51993704 7.8261959e-39
0.62256718 0.83985889 0.51993704 7.273734e-39
0.62716365 0.83985889 0.51993704 7.2722976e-39
0.63176018 0.83985889 0.51993704 7.7347037e-39
0.63635665 0.83985889 0.51993704 7.7379295e-39
0.64095318 0.83985889 0.51993704 9.2966204e-39
0.65261567 0.83655721 0.46893692 9.294475e-39
0.65711617 0.83655721 0.46893692 7.6382145e-39
0.6637733 0.83552134 0.45293689 7.6349817e-39
0.66824377 0.83552134 0.45293689 4.0494471e-39
0.67271417 0.83552134 0.45293689 4.0458331e-39
0.67718464 0.83552134 0.45293689 3.8610593e-39
0.68165505 0.83552134 0.45293689 3.8599719e-39
0.68612552 0.83552134 0.45293689 2.8504891e-39
0.69059587 0.83552134 0.45293689 2.8512416e-39
0.69506633 0.83552134 0.45293689 3.2218486e-39
0.6995368 0.83552134 0.45293689 3.2250688e-39
0.70400721 0.83552134 0.45293689 3.7775083e-39
0.70847762 0.83552134 0.45293689 3.779302e-39
0.71294808 0.83552134 0.45293689 2.3956711e-39
0.71562314 0.83655721 0.46893692 2.3899159e-39
0.7218889 0.83552134 0.45293689 4.3270569e-39
0.72635937 0.83552134 0.45293689 4.3360925e-39
0.73082983 0.83552134 0.45293689 1.1223823e-38
0.73362529 0.83655721 0.46893692 1.1224129e-38
0.73812586 0.83655721 0.46893692 1.9422347e-39
0.74262637 0.83655721 0.46893692 1.9361278e-39
0.74712694 0.83655721 0.46893692 3.1285474e-39
0.2505638 0.86376673 0.809937 2.1147359e-39
0.25570589 0.86376673 0.809937 3.2239408e-39
0.26666945 0.86230111 0.78793693 6.0783787e-39
0.27177018 0.86230111 0.78793693 8.9278168e-39
0.27687091 0.86230111 0.78793693 8.6548481e-39
0.28197163 0.86230111 0.78793693 8.4668611e-39
0.29247111 0.86090219 0.76693702 8.1873848e-39
0.30289161 0.85950315 0.74593687 7.9997579e-39
0.30791336 0.85950315 0.74593687 7.1692784e-39
0.31293499 0.85950315 0.74593687 6.4331595e-39
0.31795675 0.85950315 0.74593687 6.5239244e-39
0.32297844 0.85950315 0.74593687 6.7083114e-39
0.32800019 0.85950315 0.74593687 6.9845536e-39
0.3379001 0.85817087 0.72593689 7.3583514e-39
0.34288418 0.85817087 0.72593689 7.8243462e-39
0.35267127 0.85683846 0.70593691 8.2857041e-39
0.36714846 0.85417378 0.66593695 7.7372232e-39
0.38974869 0.84917748 0.5909369 7.1865718e-39
0.39447868 0.84917748 0.5909369 7.5546312e-39
0.40339601 0.84797835 0.57293701 8.0134542e-39
0.4080922 0.84797835 0.57293701 7.5539152e-39
0.41278845 0.84797835 0.57293701 7.0922182e-39
0.4215703 0.84677923 0.55493689 6.8141781e-39
0.43028432 0.8455801 0.536937 6.5502113e-39
0.43870747 0.84444761 0.51993704 9.5004393e-39
0.44706666 0.84331512 0.50293708 1.2434823e-38
0.45163125 0.84331512 0.50293708 7.1959423e-39
0.45619571 0.84331512 0.50293708 1.9450499e-39
0.46442699 0.84218264 0.48593688 1.1945887e-39
0.46895951 0.84218264 0.48593688 5.5318079e-40
0.47349203 0.84218264 0.48593688 2.6668784e-39
0.4780246 0.84218264 0.48593688 4.8831314e-39
0.48609588 0.84105015 0.46893692 6.8239256e-39
0.49059638 0.84105015 0.46893692 8.8439211e-39
0.49509692 0.84105015 0.46893692 8.1092371e-39
0.49959746 0.84105015 0.46893692 7.4641956e-39
0.50068712 0.84218264 0.48593688 6.4518346e-39
0.5052197 0.84218264 0.48593688 5.5284644e-39
0.50975221 0.84218264 0.48593688 5.2479272e-39
0.51428473 0.84218264 0.48593688 5.064664e-39
0.51881725 0.84218264 0.48593688 5.0653787e-39
0.52334976 0.84218264 0.48593688 5.1565051e-39
0.53110123 0.84105015 0.46893692 5.1561113e-39
0.53560174 0.84105015 0.46893692 5.156833e-39
0.53694731 0.84218264 0.48593688 5.5248826e-39
0.54460281 0.84105015 0.46893692 5.9837126e-39
0.54910338 0.84105015 0.46893692 6.8098845e-39
0.55360389 0.84105015 0.46893692 7.7332842e-39
0.5581044 0.84105015 0.46893692 7.7386638e-39
0.55960989 0.84218264 0.48593688 7.7383134e-39
0.56414247 0.84218264 0.48593688 7.6460996e-39
0.56867498 0.84218264 0.48593688 7.5539096e-39
0.57030833 0.84331512 0.50293708 7.4617125e-39
0.57487285 0.84331512 0.50293708 7.4606349e-39
0.57943738 0.84331512 0.50293708 7.4599147e-39
0.58119881 0.84444761 0.51993704 7.4591944e-39
0.58579528 0.84444761 0.51993704 7.4584713e-39
0.59039176 0.84444761 0.51993704 7.5503096e-39
0.59498823 0.84444761 0.51993704 7.4584727e-39
0.5995847 0.84444761 0.51993704 7.4584741e-39
0.60418123 0.84444761 0.51993704 7.3666386e-39
0.60877776 0.84444761 0.51993704 7.3655596e-39
0.61337423 0.84444761 0.51993704 7.3645017e-39
0.61797071 0.84444761 0.51993704 7.4559574e-39
0.62005198 0.8455801 0.536937 7.2719333e-39
0.6246804 0.8455801 0.536937 7.0871861e-39
0.63176018 0.84444761 0.51993704 7.2697865e-39
0.63635665 0.84444761 0.51993704 7.4566496e-39
0.64095318 0.84444761 0.51993704 8.6540956e-39
0.65261567 0.84105015 0.46893692 9.8403971e-39
0.65711617 0.84105015 0.46893692 9.006745e-39
0.66161674 0.84105015 0.46893692 8.1769549e-39
0.66824377 0.83998424 0.45293689 6.0615393e-39
0.67271417 0.83998424 0.45293689 3.9543353e-39
0.67718464 0.83998424 0.45293689 4.6944101e-39
0.68165505 0.83998424 0.45293689 5.4291165e-39
0.68612552 0.83998424 0.45293689 4.9702711e-39
0.69059587 0.83998424 0.45293689 4.5114832e-39
0.69713378 0.83885175 0.43593693 4.3285325e-39
0.6995368 0.83998424 0.45293689 4.1423293e-39
0.70400721 0.83998424 0.45293689 3.9565018e-39
0.70847762 0.83998424 0.45293689 3.8632131e-39
0.71294808 0.83998424 0.45293689 3.2193011e-39
0.71741849 0.83998424 0.45293689 2.6657503e-39
0.7218889 0.83998424 0.45293689 1.3779052e-39
0.72635937 0.83998424 0.45293689 9.2278306e-41
0.73082983 0.83998424 0.45293689 4.7759685e-39
0.73362529 0.84105015 0.46893692 9.5513344e-39
0.73637825 0.84218264 0.48593688 4.8676695e-39
0.74091077 0.84218264 0.48593688 2.7874909e-40
0.74544328 0.84218264 0.48593688 1.4755e-39
0.2505638 0.86890012 0.809937 3.4919153e-39
0.25570589 0.86890012 0.809937 3.4933488e-39
0.26666945 0.86739326 0.78793693 8.9195338e-39
0.27177018 0.86739326 0.78793693 8.9274581e-39
0.28234869 0.86595482 0.76693702 7.9162237e-39
0.2874099 0.86595482 0.76693702 7.9154894e-39
0.29247111 0.86595482 0.76693702 7.0832134e-39
0.30289161 0.86451638 0.74593687 7.0774569e-39
0.30259359 0.86595482 0.76693702 5.4229676e-39
0.3076548 0.86595482 0.76693702 5.4218928e-39
0.31795675 0.86451638 0.74593687 6.1569369e-39
0.32297844 0.86451638 0.74593687 6.1576572e-39
0.32800019 0.86451638 0.74593687 7.0774513e-39
0.3379001 0.86314648 0.72593689 7.0792575e-39
0.34288418 0.86314648 0.72593689 7.9126055e-39
0.35267127 0.86177659 0.70593691 7.9194383e-39
0.38072968 0.85513246 0.60893703 7.5535494e-39
0.38974869 0.85389954 0.5909369 7.55499e-39
0.39447868 0.85389954 0.5909369 7.738668e-39
0.39920878 0.85389954 0.5909369 7.7390239e-39
0.4080922 0.85266662 0.57293701 7.1872907e-39
0.41278845 0.85266662 0.57293701 7.1869235e-39
0.4215703 0.85143369 0.55493689 6.6355434e-39
0.42623264 0.85143369 0.55493689 6.6352309e-39
0.43870747 0.84903634 0.51993704 9.3056812e-39
0.44706666 0.8478719 0.50293708 9.3127746e-39
0.45163125 0.8478719 0.50293708 3.2328979e-39
0.45619571 0.8478719 0.50293708 3.2146039e-39
0.46076024 0.8478719 0.50293708 2.4813577e-39
0.46895951 0.84670746 0.48593688 2.4831611e-39
0.47349203 0.84670746 0.48593688 5.4237005e-39
0.4780246 0.84670746 0.48593688 5.4255348e-39
0.48255712 0.84670746 0.48593688 8.2843154e-39
0.4870896 0.84670746 0.48593688 8.2964955e-39
0.49162212 0.84670746 0.48593688 6.2725118e-39
0.49615464 0.84670746 0.48593688 6.269258e-39
0.50068712 0.84670746 0.48593688 4.5189788e-39
0.5052197 0.84670746 0.48593688 4.5136104e-39
0.50975221 0.84670746 0.48593688 4.6972954e-39
0.51428473 0.84670746 0.48593688 4.697322e-39
0.51881725 0.84670746 0.48593688 5.7136375e-39
0.52334976 0.84670746 0.48593688 5.7200737e-39
0.53110123 0.84554303 0.46893692 5.2554942e-39
0.53560174 0.84554303 0.46893692 5.2501034e-39
0.53694731 0.84670746 0.48593688 6.3524797e-39
0.54147983 0.84670746 0.48593688 6.3528482e-39
0.54910338 0.84554303 0.46893692 8.6512566e-39
0.55360389 0.84554303 0.46893692 8.6537915e-39
0.5581044 0.84554303 0.46893692 7.4606714e-39
0.55960989 0.84670746 0.48593688 7.461372e-39
0.56414247 0.84670746 0.48593688 7.2773269e-39
0.56867498 0.84670746 0.48593688 7.2773269e-39
0.57030833 0.8478719 0.50293708 7.3691624e-39
0.57487285 0.8478719 0.50293708 7.3691582e-39
0.57943738 0.8478719 0.50293708 7.4606321e-39
0.58119881 0.84903634 0.51993704 7.4606293e-39
0.58579528 0.84903634 0.51993704 7.5521033e-39
0.59039176 0.84903634 0.51993704 7.5517446e-39
0.59498823 0.84903634 0.51993704 7.5513858e-39
0.5995847 0.84903634 0.51993704 7.5513858e-39
0.60418123 0.84903634 0.51993704 7.6421465e-39
0.60877776 0.84903634 0.51993704 7.6414249e-39
0.61337423 0.84903634 0.51993704 7.6403459e-39
0.61797071 0.84903634 0.51993704 7.6392697e-39
0.62256718 0.84903634 0.51993704 7.2708515e-39
0.62716365 0.84903634 0.51993704 7.2701396e-39
0.62930888 0.85020077 0.536937 5.5177388e-39
0.63635665 0.84903634 0.51993704 5.5105263e-39
0.64095318 0.84903634 0.51993704 1.5520559e-38
0.65026033 0.84670746 0.48593688 1.5520566e-38
0.65711617 0.84554303 0.46893692 1.5704245e-38
0.66161674 0.84554303 0.46893692 1.5704237e-38
0.66611731 0.84554303 0.46893692 4.5950048e-39
0.67271417 0.84444714 0.45293689 4.5979013e-39
0.67718464 0.84444714 0.45293689 5.0610514e-39
0.68165505 0.84444714 0.45293689 5.0650031e-39
0.68612552 0.84444714 0.45293689 4.4200092e-39
0.69059587 0.84444714 0.45293689 4.4178541e-39
0.69506633 0.84444714 0.45293689 3.957599e-39
0.6995368 0.84444714 0.45293689 3.9568647e-39
0.70400721 0.84444714 0.45293689 3.6799065e-39
0.70847762 0.84444714 0.45293689 3.6784659e-39
0.71294808 0.84444714 0.45293689 1.5637328e-39
0.71741849 0.84444714 0.45293689 1.561572e-39
0.7218889 0.84444714 0.45293689 1.1479797e-38
0.72635937 0.84444714 0.45293689 1.147988e-38
0.73082983 0.84444714 0.45293689 1.6258637e-38
0.73362529 0.84554303 0.46893692 1.6262142e-38
0.74151826 0.8432827 0.43593693 1.8725972e-40
0.74595672 0.8432827 0.43593693 1.8404374e-40
0.75039518 0.8432827 0.43593693 2.4813787e-39
0.26666945 0.87248534 0.78793693 6.3642828e-39
0.27177018 0.87248534 0.78793693 9.022127e-39
0.28234869 0.8710075 0.76693702 8.1902588e-39
0.2874099 0.8710075 0.76693702 7.3572471e-39
0.29247111 0.8710075 0.76693702 6.7997966e-39
0.29753232 0.8710075 0.76693702 6.2484039e-39
0.30259359 0.8710075 0.76693702 5.3300517e-39
0.3076548 0.8710075 0.76693702 4.4124114e-39
0.31271601 0.8710075 0.76693702 5.055983e-39
0.31777722 0.8710075 0.76693702 5.6999062e-39
0.32800019 0.8695296 0.74593687 6.2523611e-39
0.3379001 0.86812216 0.72593689 6.8073384e-39
0.34288418 0.86812216 0.72593689 7.1790034e-39
0.35267127 0.86671466 0.70593691 7.6432395e-39
0.38072968 0.85988837 0.60893703 7.7401099e-39
0.38974869 0.8586216 0.5909369 7.9234292e-39
0.39447868 0.8586216 0.5909369 7.7397456e-39
0.40339601 0.85735488 0.57293701 7.5553515e-39
0.4080922 0.85735488 0.57293701 7.4631531e-39
0.41278845 0.85735488 0.57293701 7.3695183e-39
0.4215703 0.85608816 0.55493689 7.0925713e-39
0.42623264 0.85608816 0.55493689 6.8170592e-39
0.43089497 0.85608816 0.55493689 6.4497606e-39
0.443304 0.85362506 0.51993704 6.1702591e-39
0.45163125 0.85242867 0.50293708 5.3397641e-39
0.45249701 0.85362506 0.51993704 4.6004306e-39
0.46076024 0.85242867 0.50293708 4.5042609e-39
0.4653247 0.85242867 0.50293708 4.5075175e-39
0.46988922 0.85242867 0.50293708 5.2454287e-39
0.47445369 0.85242867 0.50293708 6.080583e-39
0.47901827 0.85242867 0.50293708 6.9160932e-39
0.4870896 0.85123235 0.48593688 7.8333467e-39
0.49162212 0.85123235 0.48593688 6.4550968e-39
0.49615464 0.85123235 0.48593688 5.0671247e-39
0.50068712 0.85123235 0.48593688 4.3223808e-39
0.5052197 0.85123235 0.48593688 3.5894891e-39
0.50975221 0.85123235 0.48593688 3.9590101e-39
0.51428473 0.85123235 0.48593688 4.3310128e-39
0.51881725 0.85123235 0.48593688 5.2540719e-39
0.52334976 0.85123235 0.48593688 6.2613435e-39
0.53110123 0.85003597 0.46893692 5.7996633e-39
0.53241479 0.85123235 0.48593688 5.341206e-39
0.53694731 0.85123235 0.48593688 6.0769844e-39
0.54147983 0.85123235 0.48593688 6.8145467e-39
0.54601234 0.85123235 0.48593688 8.1953049e-39
0.55054486 0.85123235 0.48593688 9.6632393e-39
0.55507743 0.85123235 0.48593688 8.3764928e-39
0.55960989 0.85123235 0.48593688 7.1833306e-39
0.56414247 0.85123235 0.48593688 7.0922196e-39
0.56867498 0.85123235 0.48593688 7.0925755e-39
0.5732075 0.85123235 0.48593688 7.1847711e-39
0.57487285 0.85242867 0.50293708 7.2769625e-39
0.57943738 0.85242867 0.50293708 7.3695141e-39
0.5840019 0.85242867 0.50293708 7.5528306e-39
0.58579528 0.85362506 0.51993704 7.5528278e-39
0.59039176 0.85362506 0.51993704 7.5521117e-39
0.59498823 0.85362506 0.51993704 7.6435815e-39
0.5995847 0.85362506 0.51993704 7.7347107e-39
0.60418123 0.85362506 0.51993704 7.8261861e-39
0.60877776 0.85362506 0.51993704 7.9176628e-39
0.61337423 0.85362506 0.51993704 7.8254546e-39
0.61797071 0.85362506 0.51993704 7.8240169e-39
0.62005198 0.85482144 0.536937 7.6389081e-39
0.6246804 0.85482144 0.536937 7.5402259e-39
0.62930888 0.85482144 0.536937 5.6052317e-39
0.63393736 0.85482144 0.536937 3.6753831e-39
0.64095318 0.85362506 0.51993704 1.239832e-38
0.64554965 0.85362506 0.51993704 2.1259905e-38
0.65246952 0.85242867 0.50293708 2.2315494e-38
0.65932536 0.85123235 0.48593688 2.3387855e-38
0.66611731 0.85003597 0.46893692 1.4358382e-38
0.67061782 0.85003597 0.46893692 5.3441544e-39
0.67718464 0.84890997 0.45293689 5.0545676e-39
0.68165505 0.84890997 0.45293689 4.7808604e-39
0.68612552 0.84890997 0.45293689 4.5071798e-39
0.69059587 0.84890997 0.45293689 4.3224284e-39
0.69506633 0.84890997 0.45293689 4.0458443e-39
0.6995368 0.84890997 0.45293689 3.8632453e-39
0.70400721 0.84890997 0.45293689 3.6806365e-39
0.70847762 0.84890997 0.45293689 3.5880752e-39
0.71294808 0.84890997 0.45293689 2.0264934e-39
0.71741849 0.84890997 0.45293689 5.5435087e-40
0.7218889 0.84890997 0.45293689 1.1755406e-38
0.72635937 0.84890997 0.45293689 2.2989187e-38
0.73082983 0.84890997 0.45293689 2.3018942e-38
0.73362529 0.85003597 0.46893692 2.30907e-38
0.73812586 0.85003597 0.46893692 1.1591098e-38
0.74595672 0.84771365 0.43593693 1.9453106e-40
0.75039518 0.84771365 0.43593693 1.2875074e-39
0.26084799 0.87916702 0.809937 1.0120929e-38
0.26599014 0.87916702 0.809937 1.0133839e-38
0.27687091 0.87757748 0.78793693 7.5538311e-39
0.2874099 0.87606013 0.76693702 7.5455816e-39
0.29247111 0.87606013 0.76693702 6.5318053e-39
0.29753232 0.87606013 0.76693702 6.5285739e-39
0.30259359 0.87606013 0.76693702 5.1499638e-39
0.3076548 0.87606013 0.76693702 5.1492478e-39
0.31271601 0.87606013 0.76693702 5.793534e-39
0.31777722 0.87606013 0.76693702 5.7949703e-39
0.32800019 0.87454283 0.74593687 6.805881e-39
0.3379001 0.87309778 0.72593689 6.8069797e-39
0.34288418 0.87309778 0.72593689 7.4563091e-39
0.35267127 0.87165272 0.70593691 7.4631559e-39
0.38072968 0.86464429 0.60893703 8.0149185e-39
0.38974869 0.86334372 0.5909369 8.0159821e-39
0.39447868 0.86334372 0.5909369 7.5564347e-39
0.39920878 0.86334372 0.5909369 7.556069e-39
0.4080922 0.8620432 0.57293701 7.3709574e-39
0.41278845 0.8620432 0.57293701 7.369877e-39
0.4215703 0.86074263 0.55493689 6.9092618e-39
0.42623264 0.86074263 0.55493689 6.9078185e-39
0.43089497 0.86074263 0.55493689 6.3542874e-39
0.43954134 0.85944211 0.536937 6.3521364e-39
0.44790053 0.85821378 0.51993704 5.4337842e-39
0.45249701 0.85821378 0.51993704 5.4341247e-39
0.45709348 0.85821378 0.51993704 5.1568078e-39
0.46169001 0.85821378 0.51993704 5.1553883e-39
0.46628648 0.85821378 0.51993704 5.6213985e-39
0.47088295 0.85821378 0.51993704 5.6282214e-39
0.47901827 0.85698551 0.50293708 5.0703995e-39
0.48358274 0.85698551 0.50293708 5.0635738e-39
0.48814726 0.85698551 0.50293708 3.5052318e-39
0.49271175 0.85698551 0.50293708 3.5080736e-39
0.49727625 0.85698551 0.50293708 3.5923477e-39
0.50184071 0.85698551 0.50293708 3.5848256e-39
0.50640523 0.85698551 0.50293708 4.322392e-39
0.51096976 0.85698551 0.50293708 4.3256318e-39
0.51553428 0.85698551 0.50293708 5.7046104e-39
0.52009881 0.85698551 0.50293708 5.7060257e-39
0.52788234 0.85575724 0.48593688 5.339383e-39
0.53241479 0.85575724 0.48593688 5.3404886e-39
0.53694731 0.85575724 0.48593688 5.6163846e-39
0.54147983 0.85575724 0.48593688 5.6170979e-39
0.54601234 0.85575724 0.48593688 9.0207468e-39
0.55054486 0.85575724 0.48593688 9.0264893e-39
0.55507743 0.85575724 0.48593688 6.2667651e-39
0.55960989 0.85575724 0.48593688 6.2624645e-39
0.56414247 0.85575724 0.48593688 6.8145593e-39
0.56867498 0.85575724 0.48593688 6.8159928e-39
0.57030833 0.85698551 0.50293708 7.2762451e-39
0.57487285 0.85698551 0.50293708 7.2773213e-39
0.57943738 0.85698551 0.50293708 7.4609923e-39
0.5840019 0.85698551 0.50293708 7.4609951e-39
0.58579528 0.85821378 0.51993704 7.6439528e-39
0.59039176 0.85821378 0.51993704 7.6435885e-39
0.59498823 0.85821378 0.51993704 7.7357785e-39
0.5995847 0.85821378 0.51993704 7.7361456e-39
0.60418123 0.85821378 0.51993704 7.919109e-39
0.60877776 0.85821378 0.51993704 7.9183803e-39
0.61337423 0.85821378 0.51993704 8.0094871e-39
0.61797071 0.85821378 0.51993704 8.0091228e-39
0.62256718 0.85821378 0.51993704 8.006606e-39
0.6246804 0.85944211 0.536937 8.0044256e-39
0.62930888 0.85944211 0.536937 3.9564611e-39
0.63393736 0.85944211 0.536937 3.9494546e-39
0.64095318 0.85821378 0.51993704 2.2270087e-38
0.64554965 0.85821378 0.51993704 2.2315654e-38
0.65014613 0.85821378 0.51993704 2.341769e-38
0.65932536 0.85575724 0.48593688 2.341763e-38
0.66611731 0.8545289 0.46893692 1.0055864e-38
0.67061782 0.8545289 0.46893692 1.0010546e-38
0.67718464 0.85337287 0.45293689 4.0432744e-39
0.68165505 0.85337287 0.45293689 4.045459e-39
0.68612552 0.85337287 0.45293689 4.6904921e-39
0.69059587 0.85337287 0.45293689 4.6926403e-39
0.69506633 0.85337287 0.45293689 4.0494289e-39
0.6995368 0.85337287 0.45293689 4.0494275e-39
0.70400721 0.85337287 0.45293689 3.6802918e-39
0.70847762 0.85337287 0.45293689 3.6784757e-39
0.71294808 0.85337287 0.45293689 3.6986432e-40
0.71741849 0.85337287 0.45293689 3.6781002e-40
0.7218889 0.85337287 0.45293689 1.7581324e-38
0.72462428 0.8545289 0.46893692 1.7621833e-38
0.72912478 0.8545289 0.46893692 2.2295731e-38
0.73362529 0.8545289 0.46893692 2.2286063e-38
0.73812586 0.8545289 0.46893692 2.1471115e-40
0.26666945 0.88266957 0.78793693 9.1329922e-39
0.27177018 0.88266957 0.78793693 1.1330581e-38
0.27687091 0.88266957 0.78793693 9.5792329e-39
0.28197163 0.88266957 0.78793693 7.826109e-39
0.29247111 0.88111281 0.76693702 7.2672053e-39
0.29753232 0.88111281 0.76693702 6.8055153e-39
0.30259359 0.88111281 0.76693702 6.3438253e-39
0.3076548 0.88111281 0.76693702 5.8850079e-39
0.31271601 0.88111281 0.76693702 5.8853681e-39
0.31777722 0.88111281 0.76693702 5.9775679e-39
0.32800019 0.87955606 0.74593687 6.4371069e-39
0.3379001 0.87807345 0.72593689 6.8984508e-39
0.34288418 0.87807345 0.72593689 7.0846525e-39
0.35267127 0.87659085 0.70593691 7.3673449e-39
0.37167555 0.87221712 0.64693689 7.7422609e-39
0.38549364 0.86940014 0.60893703 8.107798e-39
0.39447868 0.86806583 0.5909369 7.830865e-39
0.39920878 0.86806583 0.5909369 7.5549942e-39
0.4080922 0.86673146 0.57293701 7.4627929e-39
0.41278845 0.86673146 0.57293701 7.3702372e-39
0.4215703 0.8653971 0.55493689 7.1858445e-39
0.42623264 0.8653971 0.55493689 7.0929356e-39
0.43089497 0.8653971 0.55493689 6.8167033e-39
0.43954134 0.86406273 0.536937 6.6319631e-39
0.44416976 0.86406273 0.536937 6.4472075e-39
0.4487983 0.86406273 0.536937 6.2628176e-39
0.45342678 0.86406273 0.536937 5.98693e-39
0.45805526 0.86406273 0.536937 5.8039849e-39
0.46628648 0.86280251 0.51993704 5.4373603e-39
0.47088295 0.86280251 0.51993704 5.1561099e-39
0.47901827 0.86154234 0.50293708 3.6813764e-39
0.4800759 0.86280251 0.51993704 2.3013132e-39
0.48814726 0.86154234 0.50293708 2.1154912e-39
0.49271175 0.86154234 0.50293708 2.0239921e-39
0.49727625 0.86154234 0.50293708 2.8512122e-39
0.50184071 0.86154234 0.50293708 3.6795407e-39
0.50640523 0.86154234 0.50293708 3.9572052e-39
0.51096976 0.86154234 0.50293708 4.3256346e-39
0.51881725 0.86028206 0.48593688 4.6944185e-39
0.52009881 0.86154234 0.50293708 5.1550365e-39
0.52788234 0.86028206 0.48593688 5.2486475e-39
0.53241479 0.86028206 0.48593688 5.3405208e-39
0.53694731 0.86028206 0.48593688 4.8813503e-39
0.54147983 0.86028206 0.48593688 4.4268406e-39
0.54910338 0.85902184 0.46893692 6.4522311e-39
0.55054486 0.86028206 0.48593688 8.4693666e-39
0.55507743 0.86028206 0.48593688 6.904929e-39
0.55960989 0.86028206 0.48593688 5.4370002e-39
0.56414247 0.86028206 0.48593688 5.9894733e-39
0.56867498 0.86028206 0.48593688 6.6326819e-39
0.57030833 0.86154234 0.50293708 6.9089059e-39
0.57487285 0.86154234 0.50293708 7.2766094e-39
0.57943738 0.86154234 0.50293708 7.2773241e-39
0.58119881 0.86280251 0.51993704 7.368805e-39
0.58579528 0.86280251 0.51993704 7.552476e-39
0.59039176 0.86280251 0.51993704 7.7361442e-39
0.59498823 0.86280251 0.51993704 7.7361386e-39
0.5995847 0.86280251 0.51993704 7.8276168e-39
0.60418123 0.86280251 0.51993704 7.9191006e-39
0.60877776 0.86280251 0.51993704 8.010213e-39
0.61337423 0.86280251 0.51993704 8.1016855e-39
0.61797071 0.86280251 0.51993704 8.285009e-39
0.62005198 0.86406273 0.536937 8.376476e-39
0.6246804 0.86406273 0.536937 8.4585977e-39
0.62930888 0.86406273 0.536937 6.3370094e-39
0.63393736 0.86406273 0.536937 4.3616466e-39
0.63856584 0.86406273 0.536937 1.3866071e-38
0.64554965 0.86280251 0.51993704 2.3417331e-38
0.65014613 0.86280251 0.51993704 2.341769e-38
0.65703398 0.86154234 0.50293708 2.3417652e-38
0.66385794 0.86028206 0.48593688 1.9101324e-38
0.67061782 0.85902184 0.46893692 1.4739402e-38
0.67511833 0.85902184 0.46893692 9.0002612e-39
0.68165505 0.85783577 0.45293689 3.313317e-39
0.68612552 0.85783577 0.45293689 4.1466622e-39
0.69059587 0.85783577 0.45293689 5.0646556e-39
0.69506633 0.85783577 0.45293689 4.697301e-39
0.6995368 0.85783577 0.45293689 4.3263717e-39
0.70400721 0.85783577 0.45293689 4.0472751e-39
0.70847762 0.85783577 0.45293689 3.8614559e-39
0.71294808 0.85783577 0.45293689 2.0229299e-39
0.71741849 0.85783577 0.45293689 2.7699747e-40
0.7218889 0.85783577 0.45293689 6.1534645e-39
0.72635937 0.85783577 0.45293689 1.2160807e-38
0.72912478 0.85902184 0.46893692 1.6882854e-38
0.73362529 0.85902184 0.46893692 2.152804e-38
0.73812586 0.85902184 0.46893692 1.0837079e-38
0.74091077 0.86028206 0.48593688 1.8407737e-40
0.26084799 0.88943386 0.809937 9.6761256e-39
0.27177018 0.88776171 0.78793693 9.679336e-39
0.27687091 0.88776171 0.78793693 7.6510462e-39
0.2874099 0.8861655 0.76693702 7.6435142e-39
0.29247111 0.8861655 0.76693702 7.3619107e-39
0.29753232 0.8861655 0.76693702 7.3561695e-39
0.30259359 0.8861655 0.76693702 6.8969907e-39
0.3076548 0.8861655 0.76693702 6.8969921e-39
0.31271601 0.8861655 0.76693702 6.7133225e-39
0.32297844 0.88456929 0.74593687 6.7133281e-39
0.32800019 0.88456929 0.74593687 7.17323e-39
0.3379001 0.88304913 0.72593689 7.1739573e-39
0.34288418 0.88304913 0.72593689 7.178632e-39
0.35267127 0.88152891 0.70593691 7.1833152e-39
0.36714846 0.87848854 0.66593695 7.8286958e-39
0.38549364 0.87415606 0.60893703 7.8315741e-39
0.39447868 0.87278789 0.5909369 7.3713288e-39
0.39920878 0.87278789 0.5909369 7.370247e-39
0.40393889 0.87278789 0.5909369 7.1865704e-39
0.41278845 0.87141973 0.57293701 7.1865662e-39
0.4215703 0.87005156 0.55493689 6.9099793e-39
0.42623264 0.87005156 0.55493689 6.9089059e-39
0.43089497 0.87005156 0.55493689 6.6334022e-39
0.43954134 0.8686834 0.536937 6.633398e-39
0.44416976 0.8686834 0.536937 6.3568111e-39
0.4487983 0.8686834 0.536937 6.356088e-39
0.45342678 0.8686834 0.536937 5.8050695e-39
0.45805526 0.8686834 0.536937 5.8050611e-39
0.46268368 0.8686834 0.536937 5.2515285e-39
0.47088295 0.86739123 0.51993704 5.2493804e-39
0.47547942 0.86739123 0.51993704 3.2257765e-39
0.4800759 0.86739123 0.51993704 3.2228968e-39
0.48814726 0.86609912 0.50293708 3.0377825e-39
0.49271175 0.86609912 0.50293708 3.0363349e-39
0.49727625 0.86609912 0.50293708 4.0490253e-39
0.50184071 0.86609912 0.50293708 4.0515462e-39
0.50640523 0.86609912 0.50293708 4.8802279e-39
0.51096976 0.86609912 0.50293708 4.8823873e-39
0.51553428 0.86609912 0.50293708 5.7096312e-39
0.52009881 0.86609912 0.50293708 5.710713e-39
0.52466333 0.86609912 0.50293708 5.9858664e-39
0.52922785 0.86609912 0.50293708 5.9858804e-39
0.53379232 0.86609912 0.50293708 6.5390612e-39
0.54147983 0.86480695 0.48593688 6.5412094e-39
0.54601234 0.86480695 0.48593688 8.1960392e-39
0.55054486 0.86480695 0.48593688 8.1978062e-39
0.55507743 0.86480695 0.48593688 6.0816171e-39
0.55960989 0.86480695 0.48593688 6.0776963e-39
0.56414247 0.86480695 0.48593688 6.6305281e-39
0.56867498 0.86480695 0.48593688 6.6323232e-39
0.5732075 0.86480695 0.48593688 7.092221e-39
0.57487285 0.86609912 0.50293708 7.0929384e-39
0.57943738 0.86609912 0.50293708 7.2773283e-39
0.58119881 0.86739123 0.51993704 7.2780457e-39
0.58579528 0.86739123 0.51993704 7.5524774e-39
0.59039176 0.86739123 0.51993704 7.551397e-39
0.59498823 0.86739123 0.51993704 7.7350652e-39
0.5995847 0.86739123 0.51993704 7.7354226e-39
0.60418123 0.86739123 0.51993704 7.9187348e-39
0.60877776 0.86739123 0.51993704 7.9187362e-39
0.61337423 0.86739123 0.51993704 8.1935266e-39
0.61797071 0.86739123 0.51993704 8.1931735e-39
0.62005198 0.8686834 0.536937 8.3746991e-39
0.6246804 0.8686834 0.536937 8.3728606e-39
0.62930888 0.8686834 0.536937 3.4976424e-39
0.63393736 0.8686834 0.536937 3.4902856e-39
0.63856584 0.8686834 0.536937 1.9239534e-38
0.64319432 0.8686834 0.536937 1.9285093e-38
0.65014613 0.86739123 0.51993704 2.341769e-38
0.6547426 0.86739123 0.51993704 2.3417652e-38
0.66385794 0.86480695 0.48593688 1.1617112e-38
0.67061782 0.86351478 0.46893692 1.1571795e-38
0.67718464 0.86229861 0.45293689 4.3252843e-39
0.68165505 0.86229861 0.45293689 4.3339107e-39
0.68612552 0.86229861 0.45293689 4.789519e-39
0.69059587 0.86229861 0.45293689 4.7859205e-39
0.69506633 0.86229861 0.45293689 4.3252969e-39
0.6995368 0.86229861 0.45293689 4.3238606e-39
0.70400721 0.86229861 0.45293689 4.2327411e-39
0.70847762 0.86229861 0.45293689 4.2338201e-39
0.71294808 0.86229861 0.45293689 1.7496024e-39
0.71741849 0.86229861 0.45293689 1.7452892e-39
0.72012371 0.86351478 0.46893692 1.3232969e-38
0.72462428 0.86351478 0.46893692 1.3241309e-38
0.72912478 0.86351478 0.46893692 2.012081e-38
0.73362529 0.86351478 0.46893692 2.0112482e-38
0.73637825 0.86480695 0.48593688 6.6168935e-39
0.74091077 0.86480695 0.48593688 6.6215304e-39
0.74544328 0.86480695 0.48593688 1.8431881e-39
0.26084799 0.89456731 0.809937 7.1947694e-39
0.26599014 0.89456731 0.809937 8.0151736e-39
0.27687091 0.8928538 0.78793693 7.7335546e-39
0.2874099 0.89121819 0.76693702 7.5481012e-39
0.29247111 0.89121819 0.76693702 7.7299799e-39
0.29753232 0.89121819 0.76693702 7.9115027e-39
0.30259359 0.89121819 0.76693702 7.9096964e-39
0.3076548 0.89121819 0.76693702 8.0015614e-39
0.31271601 0.89121819 0.76693702 7.7264094e-39
0.32297844 0.88958251 0.74593687 7.5423909e-39
0.32800019 0.88958251 0.74593687 7.4501756e-39
0.3379001 0.88802481 0.72593689 7.4483932e-39
0.34288418 0.88802481 0.72593689 7.2629341e-39
0.35267127 0.88646704 0.70593691 7.087905e-39
0.36714846 0.88335156 0.66593695 7.3720406e-39
0.38549364 0.87891197 0.60893703 7.6468311e-39
0.39447868 0.87750995 0.5909369 7.4627985e-39
0.39920878 0.87750995 0.5909369 7.2784017e-39
0.40393889 0.87750995 0.5909369 7.0940146e-39
0.40866899 0.87750995 0.5909369 7.0014547e-39
0.41748464 0.87610799 0.57293701 6.8174235e-39
0.42218083 0.87610799 0.57293701 6.7252251e-39
0.42687708 0.87610799 0.57293701 6.7252307e-39
0.43555731 0.87470603 0.55493689 6.7245062e-39
0.44416976 0.87330407 0.536937 6.6323134e-39
0.44488204 0.87470603 0.55493689 6.5401136e-39
0.45342678 0.87330407 0.536937 6.1724114e-39
0.45805526 0.87330407 0.536937 5.8958218e-39
0.46268368 0.87330407 0.536937 5.6195894e-39
0.46731222 0.87330407 0.536937 5.4341205e-39
0.47547942 0.87197995 0.51993704 4.7894826e-39
0.4800759 0.87197995 0.51993704 4.2359473e-39
0.48467246 0.87197995 0.51993704 4.1419594e-39
0.48926893 0.87197995 0.51993704 4.0501239e-39
0.49727625 0.87065589 0.50293708 4.2337837e-39
0.50184071 0.87065589 0.50293708 4.5118251e-39
0.50640523 0.87065589 0.50293708 4.9738697e-39
0.51096976 0.87065589 0.50293708 5.5259757e-39
0.51553428 0.87065589 0.50293708 5.8943882e-39
0.52009881 0.87065589 0.50293708 6.2624617e-39
0.52466333 0.87065589 0.50293708 6.4468459e-39
0.52922785 0.87065589 0.50293708 6.7245104e-39
0.53379232 0.87065589 0.50293708 7.7372176e-39
0.54147983 0.86933178 0.48593688 8.7528031e-39
0.54601234 0.86933178 0.48593688 8.2993709e-39
0.55054486 0.86933178 0.48593688 7.9244956e-39
0.55507743 0.86933178 0.48593688 7.2744276e-39
0.55960989 0.86933178 0.48593688 6.7227196e-39
0.56414247 0.86933178 0.48593688 6.7220007e-39
0.56867498 0.86933178 0.48593688 6.7234342e-39
0.5732075 0.86933178 0.48593688 6.817069e-39
0.57774001 0.86933178 0.48593688 7.00074e-39
0.58227253 0.86933178 0.48593688 7.0929384e-39
0.58119881 0.87197995 0.51993704 7.1844152e-39
0.58579528 0.87197995 0.51993704 7.2762521e-39
0.59039176 0.87197995 0.51993704 7.4599203e-39
0.59498823 0.87197995 0.51993704 7.551753e-39
0.5995847 0.87197995 0.51993704 7.6428696e-39
0.60418123 0.87197995 0.51993704 7.734345e-39
0.60616648 0.87330407 0.536937 7.917653e-39
0.61079502 0.87330407 0.536937 8.0094913e-39
0.61542344 0.87330407 0.536937 8.100245e-39
0.62005198 0.87330407 0.536937 8.1913757e-39
0.6246804 0.87330407 0.536937 8.3660629e-39
0.62930888 0.87330407 0.536937 5.5105193e-39
0.63393736 0.87330407 0.536937 2.7554544e-39
0.63856584 0.87330407 0.536937 8.9085798e-39
0.64319432 0.87330407 0.536937 1.5105972e-38
0.6478228 0.87330407 0.536937 1.9283229e-38
0.65703398 0.87065589 0.50293708 2.3371167e-38
0.66385794 0.86933178 0.48593688 1.588804e-38
0.67061782 0.86800772 0.46893692 8.5410963e-39
0.67511833 0.86800772 0.46893692 6.9799167e-39
0.6796189 0.86800772 0.46893692 5.4223188e-39
0.68612552 0.86676151 0.45293689 4.9670916e-39
0.69059587 0.86676151 0.45293689 4.6000999e-39
0.69506633 0.86676151 0.45293689 4.4167751e-39
0.6995368 0.86676151 0.45293689 4.3253053e-39
0.70400721 0.86676151 0.45293689 4.4178555e-39
0.70847762 0.86676151 0.45293689 4.6026139e-39
0.71294808 0.86676151 0.45293689 3.960836e-39
0.71741849 0.86676151 0.45293689 3.3187078e-39
0.72012371 0.86800772 0.46893692 8.8295382e-39
0.72462428 0.86800772 0.46893692 1.444122e-38
0.72912478 0.86800772 0.46893692 1.6655036e-38
0.73184574 0.86933178 0.48593688 1.8856469e-38
0.73637825 0.86933178 0.48593688 1.6007399e-38
0.74091077 0.86933178 0.48593688 1.3146489e-38
0.74544328 0.86933178 0.48593688 6.9798845e-39
0.26084799 0.89970076 0.809937 7.4552063e-39
0.26599014 0.89970076 0.809937 7.4598558e-39
0.27687091 0.89794588 0.78793693 7.8225203e-39
0.28197163 0.89794588 0.78793693 7.8182267e-39
0.29247111 0.89627087 0.76693702 9.0135357e-39
0.30289161 0.89459574 0.74593687 9.0153223e-39
0.30791336 0.89459574 0.74593687 8.1884371e-39
0.3076548 0.89627087 0.76693702 8.188461e-39
0.31271601 0.89627087 0.76693702 8.1870498e-39
0.32297844 0.89459574 0.74593687 8.1855981e-39
0.32800019 0.89459574 0.74593687 7.3583458e-39
0.3379001 0.89300042 0.72593689 7.3576339e-39
0.34288418 0.89300042 0.72593689 6.8984634e-39
0.35267127 0.89140511 0.70593691 6.8984942e-39
0.37167555 0.88669896 0.64693689 7.8244134e-39
0.38549364 0.88366783 0.60893703 7.8322957e-39
0.39447868 0.88223207 0.5909369 7.1876438e-39
0.39502156 0.88366783 0.60893703 7.1862074e-39
0.40393889 0.88223207 0.5909369 7.0018176e-39
0.40866899 0.88223207 0.5909369 7.0010959e-39
0.41748464 0.88079631 0.57293701 6.7252265e-39
0.42218083 0.88079631 0.57293701 6.7252251e-39
0.42687708 0.88079631 0.57293701 6.8167019e-39
0.43555731 0.8793605 0.55493689 6.8167005e-39
0.4402197 0.8793605 0.55493689 6.3571628e-39
0.44488204 0.8793605 0.55493689 6.3568013e-39
0.45342678 0.87792474 0.536937 5.8965462e-39
0.45805526 0.87792474 0.536937 5.8958218e-39
0.46268368 0.87792474 0.536937 5.4359198e-39
0.46731222 0.87792474 0.536937 5.4351967e-39
0.47547942 0.87656868 0.51993704 4.5146852e-39
0.4800759 0.87656868 0.51993704 4.5128887e-39
0.48467246 0.87656868 0.51993704 4.2370221e-39
0.48926893 0.87656868 0.51993704 4.2366648e-39
0.4938654 0.87656868 0.51993704 4.6047256e-39
0.50184071 0.87521267 0.50293708 4.6054543e-39
0.50640523 0.87521267 0.50293708 5.3419431e-39
0.51096976 0.87521267 0.50293708 5.3437396e-39
0.51553428 0.87521267 0.50293708 6.0787865e-39
0.52009881 0.87521267 0.50293708 6.0791494e-39
0.52466333 0.87521267 0.50293708 6.9985862e-39
0.52922785 0.87521267 0.50293708 6.9996582e-39
0.53379232 0.87521267 0.50293708 9.3927593e-39
0.53835684 0.87521267 0.50293708 9.3981627e-39
0.54601234 0.87385666 0.48593688 7.740484e-39
0.55054486 0.87385666 0.48593688 7.7358023e-39
0.55507743 0.87385666 0.48593688 6.9085472e-39
0.55960989 0.87385666 0.48593688 6.9078255e-39
0.56414247 0.87385666 0.48593688 6.8152683e-39
0.56867498 0.87385666 0.48593688 6.8145523e-39
0.5732075 0.87385666 0.48593688 6.6312428e-39
0.57774001 0.87385666 0.48593688 6.6319631e-39
0.58227253 0.87385666 0.48593688 7.0915021e-39
0.58119881 0.87656868 0.51993704 7.092221e-39
0.58579528 0.87656868 0.51993704 7.2758934e-39
0.59039176 0.87656868 0.51993704 7.2762493e-39
0.59498823 0.87656868 0.51993704 7.5513956e-39
0.5995847 0.87656868 0.51993704 7.5510341e-39
0.60418123 0.87656868 0.51993704 7.8258217e-39
0.60877776 0.87656868 0.51993704 7.8254588e-39
0.61337423 0.87656868 0.51993704 8.1006037e-39
0.61542344 0.87792474 0.536937 8.1006037e-39
0.62005198 0.87792474 0.536937 8.3746767e-39
0.6246804 0.87792474 0.536937 8.3732376e-39
0.62930888 0.87792474 0.536937 5.7028307e-39
0.63393736 0.87792474 0.536937 5.6956253e-39
0.63856584 0.87792474 0.536937 1.1113173e-38
0.64319432 0.87792474 0.536937 1.1112563e-38
0.6478228 0.87792474 0.536937 1.3500394e-38
0.65245128 0.87792474 0.536937 1.3500286e-38
0.66385794 0.87385666 0.48593688 8.357749e-39
0.67061782 0.87250066 0.46893692 8.3581428e-39
0.67511833 0.87250066 0.46893692 5.8854367e-39
0.6796189 0.87250066 0.46893692 5.8922583e-39
0.68612552 0.8712244 0.45293689 4.5129378e-39
0.69059587 0.8712244 0.45293689 4.5111343e-39
0.69506633 0.8712244 0.45293689 4.235618e-39
0.6995368 0.8712244 0.45293689 4.2359809e-39
0.70400721 0.8712244 0.45293689 4.236704e-39
0.70847762 0.8712244 0.45293689 4.2374243e-39
0.71294808 0.8712244 0.45293689 2.3967711e-39
0.71741849 0.8712244 0.45293689 2.3928194e-39
0.72012371 0.87250066 0.46893692 1.4064531e-38
0.72462428 0.87250066 0.46893692 1.4073519e-38
0.72912478 0.87250066 0.46893692 9.657543e-39
0.73362529 0.87250066 0.46893692 9.6499606e-39
0.73637825 0.87385666 0.48593688 6.7994238e-39
0.74091077 0.87385666 0.48593688 6.7962079e-39
0.74544328 0.87385666 0.48593688 8.2691463e-40
0.26084799 0.90483421 0.809937 5.0635374e-39
0.26599014 0.90483421 0.809937 6.9945939e-39
0.27687091 0.90303802 0.78793693 7.548104e-39
0.2874099 0.9013235 0.76693702 8.0998751e-39
0.29247111 0.9013235 0.76693702 9.1111389e-39
0.30289161 0.89960897 0.74593687 1.011989e-38
0.30791336 0.89960897 0.74593687 9.2922595e-39
0.31293499 0.89960897 0.74593687 8.4646639e-39
0.31271601 0.9013235 0.76693702 8.6476384e-39
0.32297844 0.89960897 0.74593687 8.9209715e-39
0.32800019 0.89960897 0.74593687 8.0923067e-39
0.3379001 0.8979761 0.72593689 7.3554801e-39
0.34288418 0.8979761 0.72593689 7.0778324e-39
0.35267127 0.89634323 0.70593691 6.8120075e-39
0.37620264 0.88997495 0.62793708 7.4645698e-39
0.38549364 0.88842374 0.60893703 8.1063294e-39
0.3902576 0.88842374 0.60893703 7.6464597e-39
0.39502156 0.88842374 0.60893703 7.1865606e-39
0.40393889 0.88695413 0.5909369 7.094009e-39
0.40866899 0.88695413 0.5909369 7.0014519e-39
0.41748464 0.88548458 0.57293701 6.9092548e-39
0.42218083 0.88548458 0.57293701 6.8174207e-39
0.42687708 0.88548458 0.57293701 6.9092562e-39
0.43555731 0.88401496 0.55493689 7.0007274e-39
0.4402197 0.88401496 0.55493689 6.5415471e-39
0.44488204 0.88401496 0.55493689 6.173482e-39
0.44954437 0.88401496 0.55493689 5.9894537e-39
0.45805526 0.88254535 0.536937 5.8968952e-39
0.46268368 0.88254535 0.536937 5.6210257e-39
0.46731222 0.88254535 0.536937 5.4359114e-39
0.47547942 0.8811574 0.51993704 5.0674876e-39
0.4800759 0.8811574 0.51993704 4.790542e-39
0.48467246 0.8811574 0.51993704 4.6057962e-39
0.48926893 0.8811574 0.51993704 4.4217693e-39
0.4938654 0.8811574 0.51993704 4.6054431e-39
0.4984619 0.8811574 0.51993704 4.7898413e-39
0.50305843 0.8811574 0.51993704 4.974241e-39
0.51096976 0.87976944 0.50293708 5.1589882e-39
0.51553428 0.87976944 0.50293708 5.527412e-39
0.51684785 0.8811574 0.51993704 5.9869552e-39
0.52466333 0.87976944 0.50293708 6.6301708e-39
0.52922785 0.87976944 0.50293708 7.278752e-39
0.53379232 0.87976944 0.50293708 8.6623759e-39
0.54147983 0.87838149 0.48593688 1.0037052e-38
0.54601234 0.87838149 0.48593688 8.7485123e-39
0.55054486 0.87838149 0.48593688 7.5531977e-39
0.55507743 0.87838149 0.48593688 7.3684421e-39
0.55960989 0.87838149 0.48593688 7.1844096e-39
0.56414247 0.87838149 0.48593688 7.0922111e-39
0.56867498 0.87838149 0.48593688 6.9996498e-39
0.57030833 0.87976944 0.50293708 6.6315903e-39
0.57487285 0.87976944 0.50293708 6.2646029e-39
0.58227253 0.87838149 0.48593688 6.6326763e-39
0.58119881 0.8811574 0.51993704 7.091851e-39
0.58579528 0.8811574 0.51993704 7.0918594e-39
0.59039176 0.8811574 0.51993704 7.091851e-39
0.59498823 0.8811574 0.51993704 7.2758835e-39
0.5995847 0.8811574 0.51993704 7.5510271e-39
0.60418123 0.8811574 0.51993704 7.6428654e-39
0.60877776 0.8811574 0.51993704 7.733975e-39
0.61337423 0.8811574 0.51993704 7.9169271e-39
0.61542344 0.88254535 0.536937 8.0995219e-39
0.62005198 0.88254535 0.536937 8.2824811e-39
0.6246804 0.88254535 0.536937 8.4672283e-39
0.62930888 0.88254535 0.536937 8.5601372e-39
0.63393736 0.88254535 0.536937 8.7420187e-39
0.63856584 0.88254535 0.536937 7.9140307e-39
0.64319432 0.88254535 0.536937 7.1714588e-39
0.6478228 0.88254535 0.536937 5.4187665e-39
0.65245128 0.88254535 0.536937 3.6741765e-39
0.6615985 0.87976944 0.50293708 5.8789417e-39
0.66839039 0.87838149 0.48593688 8.1809626e-39
0.67511833 0.87699354 0.46893692 7.2690662e-39
0.6796189 0.87699354 0.46893692 6.3478176e-39
0.68612552 0.87568724 0.45293689 5.4269571e-39
0.69059587 0.87568724 0.45293689 4.5060756e-39
0.69506633 0.87568724 0.45293689 4.3199145e-39
0.6995368 0.87568724 0.45293689 4.1369498e-39
0.70400721 0.87568724 0.45293689 3.954006e-39
0.70847762 0.87568724 0.45293689 3.8603404e-39
0.71294808 0.87568724 0.45293689 2.664705e-39
0.71741849 0.87568724 0.45293689 1.5637244e-39
0.72012371 0.87699354 0.46893692 7.6263357e-39
0.72462428 0.87699354 0.46893692 1.3685651e-38
0.72912478 0.87699354 0.46893692 7.0717466e-39
0.73184574 0.87838149 0.48593688 5.5137311e-40
0.73637825 0.87838149 0.48593688 5.5137731e-40
0.74091077 0.87838149 0.48593688 5.5138012e-40
0.74544328 0.87838149 0.48593688 6.4323383e-40
0.74832416 0.87976944 0.50293708 7.3507493e-40
0.75288862 0.87976944 0.50293708 1.1024113e-39
0.25529128 0.91172159 0.83093691 7.5380735e-39
0.26599014 0.90996766 0.809937 7.5441719e-39
0.27113229 0.90996766 0.809937 8.0998484e-39
0.28197163 0.90813017 0.78793693 8.1045386e-39
0.29247111 0.90637618 0.76693702 8.2857251e-39
0.29753232 0.90637618 0.76693702 8.2831803e-39
0.30791336 0.9046222 0.74593687 7.5466705e-39
0.31293499 0.9046222 0.74593687 7.544874e-39
0.31271601 0.90637618 0.76693702 7.6331208e-39
0.32297844 0.9046222 0.74593687 7.6295348e-39
0.32800019 0.9046222 0.74593687 6.4356762e-39
0.33302182 0.9046222 0.74593687 6.4360489e-39
0.34288418 0.90295172 0.72593689 6.0676448e-39
0.35267127 0.9012813 0.70593691 6.0665616e-39
0.36714846 0.8979404 0.66593695 7.2711794e-39
0.38100231 0.89476657 0.62793708 7.2823211e-39
0.3902576 0.89317966 0.60893703 6.911773e-39
0.39502156 0.89317966 0.60893703 6.9089017e-39
0.40393889 0.89167619 0.5909369 6.541201e-39
0.40866899 0.89167619 0.5909369 6.5411982e-39
0.41748464 0.89017284 0.57293701 6.3571656e-39
0.42218083 0.89017284 0.57293701 6.3568083e-39
0.42687708 0.89017284 0.57293701 6.4482865e-39
0.43555731 0.88866943 0.55493689 6.4482795e-39
0.4402197 0.88866943 0.55493689 5.7125137e-39
0.44096571 0.89017284 0.57293701 5.7114347e-39
0.44954437 0.88866943 0.55493689 5.2522558e-39
0.45805526 0.88716602 0.536937 5.252253e-39
0.45886904 0.88866943 0.55493689 5.1593385e-39
0.46731222 0.88716602 0.536937 5.1586112e-39
0.47547942 0.88574612 0.51993704 4.4224825e-39
0.4800759 0.88574612 0.51993704 4.4210476e-39
0.48467246 0.88574612 0.51993704 4.3292121e-39
0.48926893 0.88574612 0.51993704 4.3292163e-39
0.4938654 0.88574612 0.51993704 4.604727e-39
0.4984619 0.88574612 0.51993704 4.6047354e-39
0.50305843 0.88574612 0.51993704 5.0653576e-39
0.51096976 0.88432628 0.50293708 5.066794e-39
0.51553428 0.88432628 0.50293708 5.7107214e-39
0.51684785 0.88574612 0.51993704 5.7118074e-39
0.52466333 0.88432628 0.50293708 7.1815453e-39
0.52922785 0.88432628 0.50293708 7.182253e-39
0.53379232 0.88432628 0.50293708 8.9324986e-39
0.53835684 0.88432628 0.50293708 8.9378964e-39
0.54601234 0.88290638 0.48593688 7.556076e-39
0.55054486 0.88290638 0.48593688 7.5521215e-39
0.55507743 0.88290638 0.48593688 7.0932944e-39
0.55960989 0.88290638 0.48593688 7.0936503e-39
0.56414247 0.88290638 0.48593688 7.0010945e-39
0.56867498 0.88290638 0.48593688 7.0003672e-39
0.5732075 0.88290638 0.48593688 6.448627e-39
0.57774001 0.88290638 0.48593688 6.4479151e-39
0.58227253 0.88290638 0.48593688 6.9992939e-39
0.5840019 0.88432628 0.50293708 6.9996568e-39
0.58856642 0.88432628 0.50293708 6.9993023e-39
0.59039176 0.88574612 0.51993704 6.9992981e-39
0.59498823 0.88574612 0.51993704 7.3662785e-39
0.5995847 0.88574612 0.51993704 7.3662799e-39
0.60418123 0.88574612 0.51993704 7.7336233e-39
0.60877776 0.88574612 0.51993704 7.7336163e-39
0.61337423 0.88574612 0.51993704 8.1935056e-39
0.61542344 0.88716602 0.536937 8.194586e-39
0.62005198 0.88716602 0.536937 9.1129452e-39
0.6246804 0.88716602 0.536937 9.1133053e-39
0.62930888 0.88716602 0.536937 8.7459647e-39
0.63393736 0.88716602 0.536937 8.7459647e-39
0.63856584 0.88716602 0.536937 8.0091284e-39
0.64319432 0.88716602 0.536937 8.0073053e-39
0.6478228 0.88716602 0.536937 6.0772955e-39
0.6547426 0.88574612 0.51993704 6.07589e-39
0.6615985 0.88432628 0.50293708 8.5551191e-39
0.66839039 0.88290638 0.48593688 8.5547618e-39
0.67511833 0.88148654 0.46893692 8.1834751e-39
0.6796189 0.88148654 0.46893692 8.179864e-39
0.68411946 0.88148654 0.46893692 7.2596915e-39
0.69059587 0.88015014 0.45293689 7.2579119e-39
0.69506633 0.88015014 0.45293689 6.7983911e-39
0.6995368 0.88015014 0.45293689 6.7980268e-39
0.70400721 0.88015014 0.45293689 7.2564812e-39
0.70847762 0.88015014 0.45293689 7.2561014e-39
0.71294808 0.88015014 0.45293689 6.2455326e-39
0.71741849 0.88015014 0.45293689 6.2451823e-39
0.72012371 0.88148654 0.46893692 1.2312073e-38
