# .PCD v0.7 - Point Cloud Data file format
VERSION 0.7
FIELDS x y z rgb
SIZE 4 4 4 4
TYPE F F F F
COUNT 1 1 1 1
WIDTH 396
HEIGHT 1
VIEWPOINT 0 0 0 1 0 0 0
POINTS 396
DATA ascii
0.31424323 0.34441665 0.59113568 7.3756504e-39
0.31424323 0.40441662 0.59113568 5.1600966e-39
0.31424323 0.46441662 0.59113568 2.9502714e-39
0.43424323 0.044416636 0.47113571 2.2069554e-39
0.43424323 0.044416636 0.53113568 2.9473791e-39
0.49424323 -0.015583365 0.4111357 8.8478882e-39
0.49424323 -0.015583365 0.47113571 4.4254014e-39
0.49424323 0.044416636 0.4111357 8.8335501e-39
0.49424323 0.044416636 0.47113571 2.9445092e-39
0.55424321 -0.015583365 0.4111357 8.1074309e-39
0.55424321 -0.015583365 0.47113571 6.6380854e-39
0.55424321 0.044416636 0.4111357 3.6878364e-39
0.55424321 0.044416636 0.47113571 4.4225204e-39
0.49424323 -0.015583365 0.53113568 4.4225092e-39
0.49424323 0.044416636 0.53113568 2.2040743e-39
0.55424321 -0.015583365 0.53113568 7.3727805e-39
0.61424321 0.044416636 0.47113571 5.1629553e-39
0.61424321 0.044416636 0.53113568 5.8947582e-39
0.43424323 0.10441664 0.47113571 2.2098253e-39
0.43424323 0.16441664 0.47113571 2.2098253e-39
0.37424323 0.10441664 0.59113568 5.897628e-39
0.43424323 0.10441664 0.53113568 3.6849441e-39
0.43424323 0.10441664 0.59113568 5.897628e-39
0.43424323 0.16441664 0.53113568 1.4751301e-39
0.43424323 0.22441663 0.47113571 5.897628e-39
0.43424323 0.28441665 0.47113571 1.0328814e-38
0.37424323 0.28441665 0.53113568 4.4282937e-39
0.37424323 0.28441665 0.59113568 8.110368e-39
0.43424323 0.22441663 0.53113568 2.9502602e-39
0.43424323 0.22441663 0.59113568 5.9034014e-39
0.43424323 0.28441665 0.53113568 5.9005315e-39
0.43424323 0.28441665 0.59113568 5.903379e-39
0.49424323 0.10441664 0.4111357 2.9474015e-39
0.49424323 0.10441664 0.47113571 2.2098253e-39
0.49424323 0.16441664 0.47113571 0
0.55424321 0.10441664 0.4111357 7.347176e-40
0.55424321 0.10441664 0.47113571 2.2069442e-39
0.55424321 0.16441664 0.47113571 7.3468397e-40
0.49424323 0.16441664 0.53113568 0
0.49424323 0.22441663 0.47113571 1.4722602e-39
0.49424323 0.28441665 0.4111357 4.4254239e-39
0.49424323 0.28441665 0.47113571 5.1629777e-39
0.55424321 0.22441663 0.47113571 2.944498e-39
0.55424321 0.28441665 0.4111357 5.1629889e-39
0.55424321 0.28441665 0.47113571 5.1629777e-39
0.49424323 0.22441663 0.53113568 2.2127063e-39
0.49424323 0.28441665 0.53113568 5.1600966e-39
0.55424321 0.22441663 0.53113568 3.6791708e-39
0.55424321 0.40441662 0.3511357 4.4254127e-39
0.55424321 0.46441662 0.3511357 4.4225428e-39
0.43424323 0.34441665 0.47113571 5.1600966e-39
0.43424323 0.40441662 0.47113571 8.1074757e-39
0.37424323 0.34441665 0.53113568 4.4254127e-39
0.37424323 0.34441665 0.59113568 5.1601078e-39
0.37424323 0.40441662 0.53113568 4.4225428e-39
0.37424323 0.40441662 0.59113568 4.4254127e-39
0.43424323 0.34441665 0.53113568 5.1600966e-39
0.43424323 0.40441662 0.53113568 5.1543345e-39
0.43424323 0.46441662 0.47113571 3.6878476e-39
0.43424323 0.52441663 0.47113571 4.4225316e-39
0.37424323 0.46441662 0.53113568 3.6878364e-39
0.37424323 0.46441662 0.59113568 3.6878364e-39
0.37424323 0.52441663 0.53113568 3.6878476e-39
0.37424323 0.52441663 0.59113568 2.9502714e-39
0.43424323 0.46441662 0.53113568 4.4225316e-39
0.43424323 0.52441663 0.53113568 4.4225428e-39
0.49424323 0.34441665 0.4111357 4.4254127e-39
0.49424323 0.34441665 0.47113571 4.4254127e-39
0.49424323 0.40441662 0.4111357 4.4254127e-39
0.49424323 0.40441662 0.47113571 4.4225428e-39
0.55424321 0.34441665 0.4111357 4.4254239e-39
0.55424321 0.40441662 0.4111357 4.4254127e-39
0.49424323 0.46441662 0.4111357 4.4254127e-39
0.49424323 0.46441662 0.47113571 4.4254127e-39
0.49424323 0.52441663 0.4111357 3.6878476e-39
0.49424323 0.52441663 0.47113571 4.4225316e-39
0.55424321 0.46441662 0.4111357 3.6878476e-39
0.55424321 0.52441663 0.4111357 3.6849665e-39
0.55424321 0.52441663 0.47113571 3.6849553e-39
0.61424321 0.10441664 0.47113571 3.6849441e-39
0.61424321 0.16441664 0.47113571 3.6763009e-39
0.61424321 0.10441664 0.53113568 5.8918995e-39
0.61424321 0.16441664 0.53113568 4.416747e-39
0.61424321 0.22441663 0.47113571 3.6820518e-39
0.61424321 0.28441665 0.4111357 6.6352155e-39
0.61424321 0.28441665 0.47113571 5.8947694e-39
0.61424321 0.22441663 0.53113568 4.4196169e-39
0.61424321 0.34441665 0.3511357 1.1792386e-38
0.61424321 0.40441662 0.3511357 4.4254127e-39
0.67424321 0.34441665 0.3511357 6.6352155e-39
0.67424321 0.40441662 0.3511357 3.6878476e-39
0.61424321 0.46441662 0.3511357 2.2127175e-39
0.61424321 0.52441663 0.3511357 1.4722602e-39
0.67424321 0.46441662 0.3511357 2.9502826e-39
0.67424321 0.52441663 0.3511357 2.9502714e-39
0.73424321 0.40441662 0.3511357 2.2184348e-39
0.73424321 0.46441662 0.3511357 5.1629665e-39
0.73424321 0.52441663 0.3511357 5.1629665e-39
0.61424321 0.34441665 0.4111357 5.8976729e-39
0.61424321 0.40441662 0.4111357 4.4254127e-39
0.67424321 0.34441665 0.4111357 7.3756616e-39
0.67424321 0.40441662 0.4111357 5.157238e-39
0.61424321 0.46441662 0.4111357 2.2098253e-39
0.61424321 0.52441663 0.4111357 1.4751413e-39
0.67424321 0.46441662 0.4111357 3.6849665e-39
0.67424321 0.52441663 0.4111357 3.6849665e-39
0.73424321 0.34441665 0.4111357 2.9473679e-39
0.73424321 0.40441662 0.4111357 9.5797135e-39
0.73424321 0.46441662 0.4111357 4.4254127e-39
0.73424321 0.52441663 0.4111357 4.4254014e-39
0.73424321 0.52441663 0.47113571 7.3727693e-39
0.31424323 0.40441662 0.65113568 6.6380966e-39
0.31424323 0.46441662 0.65113568 4.4254014e-39
0.31424323 0.52441663 0.65113568 3.6878364e-39
0.31424323 0.52441663 0.71113569 3.6878364e-39
0.37424323 0.044416636 0.65113568 5.8976168e-39
0.37424323 0.10441664 0.65113568 6.6323232e-39
0.37424323 0.46441662 0.65113568 2.9502826e-39
0.37424323 0.52441663 0.65113568 2.9502714e-39
0.43424323 0.58441663 0.47113571 8.1017248e-39
0.37424323 0.58441663 0.59113568 2.9445204e-39
0.37424323 0.64441663 0.59113568 3.6820743e-39
0.43424323 0.58441663 0.53113568 5.8947806e-39
0.43424323 0.58441663 0.59113568 3.6849665e-39
0.43424323 0.64441663 0.53113568 3.6849665e-39
0.43424323 0.64441663 0.59113568 3.6849441e-39
0.43424323 0.76441664 0.47113571 8.8449959e-39
0.37424323 0.76441664 0.59113568 1.3310732e-38
0.43424323 0.70441663 0.53113568 3.6878364e-39
0.43424323 0.70441663 0.59113568 4.4167694e-39
0.43424323 0.76441664 0.53113568 7.366996e-39
0.43424323 0.76441664 0.59113568 1.1051963e-38
0.49424323 0.58441663 0.47113571 7.3641485e-39
0.49424323 0.64441663 0.47113571 5.8861486e-39
0.55424321 0.58441663 0.4111357 2.9474127e-39
0.55424321 0.58441663 0.47113571 3.6849665e-39
0.55424321 0.64441663 0.47113571 6.6294646e-39
0.49424323 0.58441663 0.53113568 7.3670184e-39
0.49424323 0.64441663 0.53113568 5.1543345e-39
0.49424323 0.70441663 0.47113571 3.6849665e-39
0.49424323 0.76441664 0.4111357 2.9445092e-39
0.49424323 0.76441664 0.47113571 5.8947582e-39
0.55424321 0.70441663 0.47113571 5.1543233e-39
0.55424321 0.76441664 0.4111357 8.8363751e-39
0.55424321 0.76441664 0.47113571 8.1016911e-39
0.49424323 0.70441663 0.53113568 3.6849665e-39
0.49424323 0.76441664 0.53113568 5.8947582e-39
0.43424323 0.82441664 0.47113571 8.1074533e-39
0.43424323 0.88441664 0.47113571 5.8947582e-39
0.37424323 0.82441664 0.59113568 2.9502714e-39
0.37424323 0.88441664 0.59113568 3.6820743e-39
0.43424323 0.82441664 0.53113568 7.369877e-39
0.43424323 0.82441664 0.59113568 8.104561e-39
0.43424323 0.88441664 0.53113568 5.8947582e-39
0.43424323 0.88441664 0.59113568 6.632312e-39
0.37424323 0.94441664 0.59113568 2.9474015e-39
0.43424323 0.94441664 0.53113568 3.6849329e-39
0.43424323 0.94441664 0.59113568 5.894747e-39
0.43424323 1.0044166 0.59113568 7.3698882e-39
0.49424323 0.82441664 0.4111357 7.3698882e-39
0.49424323 0.82441664 0.47113571 6.6323232e-39
0.49424323 0.88441664 0.4111357 2.2069554e-39
0.49424323 0.88441664 0.47113571 4.4196169e-39
0.55424321 0.82441664 0.4111357 6.6294421e-39
0.55424321 0.82441664 0.47113571 5.1571931e-39
0.55424321 0.88441664 0.4111357 5.8918883e-39
0.55424321 0.88441664 0.47113571 5.8947582e-39
0.49424323 0.82441664 0.53113568 2.9445316e-39
0.49424323 0.88441664 0.53113568 4.422498e-39
0.49424323 0.94441664 0.47113571 2.944498e-39
0.55424321 0.94441664 0.47113571 4.4196281e-39
0.49424323 0.94441664 0.53113568 1.472249e-39
0.49424323 0.94441664 0.59113568 4.4196169e-39
0.49424323 1.0044166 0.59113568 5.897628e-39
0.55424321 0.94441664 0.53113568 3.6820631e-39
0.55424321 0.94441664 0.59113568 2.2069218e-39
0.55424321 1.0044166 0.53113568 6.6351931e-39
0.55424321 1.0044166 0.59113568 3.6820631e-39
0.67424321 0.58441663 0.3511357 3.6849553e-39
0.73424321 0.58441663 0.3511357 6.6266059e-39
0.79424322 0.58441663 0.3511357 3.6820743e-39
0.79424322 0.64441663 0.3511357 4.4167582e-39
0.61424321 0.58441663 0.4111357 1.4751413e-39
0.61424321 0.58441663 0.47113571 1.4722602e-39
0.61424321 0.64441663 0.47113571 2.2098365e-39
0.67424321 0.58441663 0.4111357 3.6849553e-39
0.67424321 0.58441663 0.47113571 2.2098477e-39
0.67424321 0.64441663 0.4111357 4.4196505e-39
0.67424321 0.64441663 0.47113571 3.6820855e-39
0.61424321 0.64441663 0.53113568 1.4780224e-39
0.61424321 0.70441663 0.47113571 2.9445092e-39
0.61424321 0.76441664 0.4111357 1.6209122e-38
0.61424321 0.76441664 0.47113571 8.0988101e-39
0.67424321 0.70441663 0.4111357 4.4225092e-39
0.67424321 0.70441663 0.47113571 2.9474015e-39
0.67424321 0.76441664 0.47113571 3.6820631e-39
0.61424321 0.76441664 0.53113568 5.894747e-39
0.67424321 0.70441663 0.53113568 2.2098253e-39
0.67424321 0.76441664 0.53113568 6.6265611e-39
0.73424321 0.58441663 0.4111357 5.8947918e-39
0.73424321 0.58441663 0.47113571 7.3727693e-39
0.73424321 0.64441663 0.4111357 2.9502714e-39
0.73424321 0.64441663 0.47113571 3.6849778e-39
0.79424322 0.58441663 0.4111357 1.4751525e-39
0.79424322 0.58441663 0.47113571 5.1658476e-39
0.79424322 0.64441663 0.4111357 3.6849553e-39
0.73424321 0.70441663 0.4111357 2.9473903e-39
0.73424321 0.70441663 0.47113571 2.9473903e-39
0.73424321 0.76441664 0.47113571 4.4167694e-39
0.79424322 0.70441663 0.4111357 1.7675687e-38
0.79424322 0.70441663 0.47113571 5.8947694e-39
0.79424322 0.76441664 0.47113571 4.4196505e-39
0.73424321 0.76441664 0.53113568 8.8363975e-39
0.79424322 0.76441664 0.53113568 7.3727357e-39
0.79424322 0.76441664 0.59113568 1.1063464e-38
0.61424321 0.82441664 0.4111357 8.0988325e-39
0.61424321 0.82441664 0.47113571 6.6294309e-39
0.61424321 0.88441664 0.47113571 5.8947582e-39
0.67424321 0.82441664 0.47113571 5.8918771e-39
0.67424321 0.88441664 0.47113571 6.6294534e-39
0.67424321 0.82441664 0.53113568 7.3554941e-39
0.67424321 0.88441664 0.53113568 7.3641261e-39
0.61424321 0.94441664 0.47113571 5.1571931e-39
0.61424321 1.0044166 0.47113571 6.6351931e-39
0.67424321 0.94441664 0.47113571 5.1571819e-39
0.67424321 1.0044166 0.47113571 5.1571931e-39
0.61424321 1.0044166 0.53113568 7.3698882e-39
0.67424321 0.94441664 0.53113568 4.4196169e-39
0.67424321 1.0044166 0.53113568 5.1543009e-39
0.73424321 0.82441664 0.47113571 8.1044937e-39
0.79424322 0.82441664 0.47113571 5.1571707e-39
0.73424321 0.82441664 0.53113568 5.8889848e-39
0.73424321 0.82441664 0.59113568 8.0988101e-39
0.73424321 0.88441664 0.53113568 4.416747e-39
0.79424322 0.82441664 0.53113568 6.6265499e-39
0.79424322 0.88441664 0.53113568 1.1043319e-38
0.79424322 0.88441664 0.59113568 1.3993602e-38
0.73424321 0.94441664 0.53113568 4.416747e-39
0.73424321 0.94441664 0.59113568 3.6820518e-39
0.73424321 1.0044166 0.53113568 3.6820631e-39
0.73424321 1.0044166 0.59113568 2.9473791e-39
0.79424322 0.94441664 0.53113568 5.1456801e-39
0.79424322 0.94441664 0.59113568 3.6734311e-39
0.79424322 1.0044166 0.53113568 3.6820518e-39
0.43424323 1.0644166 0.59113568 6.6351931e-39
0.43424323 1.1244166 0.59113568 6.6323232e-39
0.55424321 1.0644166 0.47113571 7.3727469e-39
0.49424323 1.0644166 0.59113568 5.1571931e-39
0.49424323 1.1244166 0.59113568 5.894747e-39
0.55424321 1.0644166 0.53113568 6.6351931e-39
0.55424321 1.0644166 0.59113568 3.6820631e-39
0.55424321 1.1244166 0.53113568 6.6323232e-39
0.55424321 1.1244166 0.59113568 4.4225092e-39
0.55424321 1.2444166 0.47113571 6.6351931e-39
0.49424323 1.1844167 0.59113568 5.894747e-39
0.49424323 1.2444166 0.59113568 5.1571707e-39
0.55424321 1.1844167 0.53113568 7.369877e-39
0.55424321 1.1844167 0.59113568 5.897628e-39
0.55424321 1.2444166 0.53113568 7.3727469e-39
0.55424321 1.2444166 0.59113568 5.897628e-39
0.55424321 1.3644166 0.47113571 5.8976392e-39
0.49424323 1.3044167 0.59113568 5.894747e-39
0.49424323 1.3644166 0.59113568 5.160063e-39
0.55424321 1.3044167 0.53113568 6.6351931e-39
0.55424321 1.3044167 0.59113568 5.8947582e-39
0.55424321 1.3644166 0.53113568 5.8976392e-39
0.55424321 1.3644166 0.59113568 5.8947582e-39
0.55424321 1.4244167 0.53113568 5.1600854e-39
0.55424321 1.4244167 0.59113568 5.8947582e-39
0.61424321 1.0644166 0.47113571 6.632312e-39
0.61424321 1.1244166 0.47113571 6.632312e-39
0.67424321 1.0644166 0.47113571 5.886115e-39
0.67424321 1.1244166 0.47113571 5.894747e-39
0.61424321 1.0644166 0.53113568 6.632312e-39
0.61424321 1.1244166 0.53113568 6.632312e-39
0.67424321 1.0644166 0.53113568 8.0988101e-39
0.67424321 1.1244166 0.53113568 5.1571819e-39
0.61424321 1.1844167 0.47113571 6.632312e-39
0.61424321 1.2444166 0.47113571 8.1074421e-39
0.67424321 1.1844167 0.47113571 1.108074e-38
0.67424321 1.2444166 0.47113571 1.0302884e-38
0.61424321 1.1844167 0.53113568 7.369877e-39
0.61424321 1.2444166 0.53113568 8.1074421e-39
0.67424321 1.1844167 0.53113568 7.3670072e-39
0.67424321 1.2444166 0.53113568 7.366996e-39
0.67424321 1.2444166 0.59113568 5.8918659e-39
0.73424321 1.0644166 0.53113568 4.4224867e-39
0.73424321 1.0644166 0.59113568 5.1571707e-39
0.73424321 1.1244166 0.53113568 5.8976056e-39
0.73424321 1.3044167 0.2911357 5.160063e-39
0.73424321 1.3044167 0.3511357 5.894747e-39
0.73424321 1.3644166 0.2911357 5.160063e-39
0.73424321 1.3644166 0.3511357 5.1600518e-39
0.61424321 1.3044167 0.47113571 6.6351819e-39
0.61424321 1.3644166 0.47113571 5.894747e-39
0.67424321 1.3044167 0.47113571 5.8947582e-39
0.67424321 1.3644166 0.4111357 5.894747e-39
0.67424321 1.3644166 0.47113571 5.894747e-39
0.61424321 1.3044167 0.53113568 7.3727581e-39
0.61424321 1.3644166 0.53113568 5.8947582e-39
0.67424321 1.3044167 0.53113568 5.8947582e-39
0.67424321 1.3644166 0.53113568 5.1571819e-39
0.67424321 1.3644166 0.59113568 5.8947582e-39
0.67424321 1.4244167 0.47113571 1.8404564e-38
0.61424321 1.4244167 0.53113568 5.894747e-39
0.61424321 1.4244167 0.59113568 6.6323232e-39
0.61424321 1.4844166 0.53113568 5.894747e-39
0.61424321 1.4844166 0.59113568 5.894747e-39
0.67424321 1.4244167 0.53113568 5.8918771e-39
0.67424321 1.4844166 0.53113568 5.8890072e-39
0.67424321 1.4844166 0.59113568 7.3698434e-39
0.73424321 1.3644166 0.4111357 5.160063e-39
0.73424321 1.4244167 0.53113568 4.4254014e-39
0.31424323 0.58441663 0.65113568 3.6849665e-39
0.31424323 0.58441663 0.71113569 3.6849553e-39
0.31424323 0.64441663 0.71113569 4.4196505e-39
0.37424323 0.58441663 0.65113568 2.9473903e-39
0.37424323 0.58441663 0.71113569 3.6849553e-39
0.37424323 0.64441663 0.65113568 8.1074757e-39
0.37424323 0.64441663 0.71113569 5.1543345e-39
0.37424323 0.70441663 0.65113568 5.8832563e-39
0.37424323 0.70441663 0.71113569 5.1543233e-39
0.37424323 0.76441664 0.71113569 5.1514422e-39
0.43424323 0.70441663 0.65113568 5.8832451e-39
0.43424323 0.70441663 0.71113569 4.4110185e-39
0.43424323 0.76441664 0.65113568 6.6208326e-39
0.37424323 0.70441663 0.77113569 3.6820743e-39
0.37424323 0.76441664 0.77113569 2.2864427e-38
0.37424323 1.0044166 0.65113568 1.4722938e-39
0.43424323 1.0044166 0.65113568 5.897628e-39
0.79424322 0.88441664 0.65113568 2.9387695e-39
0.37424323 1.0644166 0.71113569 2.2098253e-39
0.43424323 1.0644166 0.65113568 5.897628e-39
0.43424323 1.0644166 0.71113569 2.2098477e-39
0.43424323 1.1244166 0.65113568 5.897628e-39
0.43424323 1.1244166 0.71113569 2.9445204e-39
0.37424323 1.2444166 0.71113569 7.3698434e-39
0.43424323 1.1844167 0.65113568 7.369877e-39
0.43424323 1.1844167 0.71113569 5.897628e-39
0.43424323 1.2444166 0.65113568 7.3727581e-39
0.43424323 1.2444166 0.71113569 7.366996e-39
0.49424323 1.1244166 0.65113568 5.894747e-39
0.55424321 1.1244166 0.65113568 4.4196169e-39
0.49424323 1.1844167 0.65113568 5.1571819e-39
0.49424323 1.2444166 0.65113568 5.1571819e-39
0.55424321 1.1844167 0.65113568 4.4224867e-39
0.55424321 1.2444166 0.65113568 4.422498e-39
0.55424321 1.2444166 0.71113569 4.4225092e-39
0.37424323 1.3044167 0.65113568 6.6323232e-39
0.37424323 1.3044167 0.71113569 5.897628e-39
0.37424323 1.3644166 0.71113569 6.6323232e-39
0.43424323 1.3044167 0.65113568 7.369877e-39
0.43424323 1.3044167 0.71113569 7.369877e-39
0.43424323 1.3644166 0.65113568 5.8947582e-39
0.43424323 1.3644166 0.71113569 5.897628e-39
0.43424323 1.4244167 0.65113568 5.894747e-39
0.43424323 1.4244167 0.71113569 5.897628e-39
0.43424323 1.4844166 0.65113568 5.894747e-39
0.43424323 1.4844166 0.71113569 5.894747e-39
0.49424323 1.3044167 0.65113568 5.894747e-39
0.49424323 1.3644166 0.65113568 5.1571819e-39
0.55424321 1.3044167 0.65113568 5.160063e-39
0.55424321 1.3644166 0.65113568 5.160063e-39
0.49424323 1.4244167 0.65113568 5.1571931e-39
0.49424323 1.4844166 0.65113568 5.894747e-39
0.49424323 1.4844166 0.71113569 6.6323008e-39
0.55424321 1.4244167 0.65113568 5.8976392e-39
0.55424321 1.4844166 0.65113568 6.6265835e-39
0.49424323 1.4844166 0.77113569 8.1074084e-39
0.61424321 1.5444167 0.53113568 3.6791708e-39
0.61424321 1.5444167 0.59113568 4.4167358e-39
0.67424321 1.5444167 0.53113568 5.8832339e-39
0.67424321 1.5444167 0.59113568 7.3583416e-39
0.43424323 1.5444167 0.71113569 2.2069442e-39
0.49424323 1.5444167 0.71113569 4.416747e-39
0.55424321 1.5444167 0.71113569 5.1543345e-39
0.49424323 1.5444167 0.77113569 8.8420924e-39
0.55424321 1.5444167 0.77113569 9.5825161e-39
0.67424321 1.5444167 0.65113568 1.1786534e-38
0.67424321 1.5444167 0.71113569 1.1046088e-38
0.73424321 1.5444167 0.65113568 1.0311483e-38
0.73424321 1.5444167 0.71113569 6.632312e-39
0.73424321 1.5444167 0.89113569 5.8947582e-39
0.73424321 1.5444167 0.95113569 5.894747e-39
0.79424322 1.5444167 0.89113569 5.160063e-39
0.85424322 0.88441664 0.59113568 2.2040631e-39
0.85424322 0.94441664 0.53113568 4.4167358e-39
0.85424322 0.94441664 0.59113568 2.2040631e-39
0.85424322 0.88441664 0.65113568 6.6122454e-39
0.85424322 1.5444167 0.71113569 5.8976168e-39
0.91424322 1.5444167 0.71113569 5.8976168e-39
0.85424322 1.5444167 0.77113569 5.8976168e-39
0.91424322 1.5444167 0.77113569 5.8976168e-39
0.85424322 1.5444167 0.95113569 5.160063e-39
0.91424322 1.5444167 0.95113569 5.8947582e-39
0.97424322 1.5444167 0.95113569 5.8947582e-39
